ply
format ascii 1.0
element vertex 1672
property float x
property float y
property float z
end_header
0.002959 -0.362416 -0.154590
0.129169 0.296408 0.158772
-0.122266 0.076671 -0.499433
0.181791 -0.107045 -0.500000
0.332334 -0.306919 0.076024
-0.057233 -0.184665 0.153791
-0.250187 -0.351185 -0.336868
0.315440 -0.306494 0.157037
0.334205 -0.093075 -0.498870
-0.071496 -0.362188 -0.111877
0.152929 0.205710 0.157556
-0.338320 0.378922 -0.159409
0.331794 0.102446 -0.065508
0.040472 -0.151747 0.478074
-0.292506 0.376229 -0.418396
0.330603 0.068523 -0.356505
0.143783 0.067578 0.237999
0.090104 0.043178 0.500031
0.155467 -0.182742 0.153807
0.317549 0.378876 -0.011461
0.117033 -0.370971 0.151936
0.087711 -0.123356 0.181980
0.212015 -0.269381 -0.500000
0.136071 0.378729 -0.142424
0.247429 -0.351541 -0.448361
-0.058653 0.379023 -0.163704
0.154380 -0.361172 -0.438931
0.333129 0.175630 -0.470402
-0.234832 -0.350936 -0.282809
-0.007538 -0.360881 -0.498676
0.330453 -0.036051 -0.196211
0.053946 -0.148864 0.370602
0.016483 -0.147550 0.187235
0.277838 0.342406 0.158397
0.046640 -0.148498 0.347012
-0.034595 -0.150831 0.499039
0.290278 -0.365370 0.009557
-0.069426 0.003014 0.499627
-0.150452 -0.364798 0.104130
0.142118 -0.348401 -0.328659
0.309756 -0.005312 -0.499921
-0.080253 0.338437 -0.500000
-0.065109 0.254362 0.157970
-0.102224 0.146886 0.430453
0.027050 0.271944 -0.499774
0.292116 0.378761 -0.056917
0.278425 -0.027796 -0.500000
0.331648 0.248163 -0.107917
0.306818 0.333610 0.158208
0.198848 -0.352657 -0.060762
-0.334729 0.185381 -0.002475
0.058325 0.028029 0.499958
-0.332499 -0.306091 -0.142507
-0.228166 -0.361680 -0.383900
-0.017536 -0.362221 -0.113148
0.338863 -0.098595 0.140003
-0.088563 0.147118 0.207038
-0.312512 -0.361877 -0.444520
0.225532 0.305477 -0.500071
-0.187941 0.300834 0.158827
-0.185871 0.261572 -0.499831
0.274229 0.147208 -0.500000
0.267673 -0.364105 -0.058032
-0.324984 -0.288214 -0.500000
0.183762 0.378871 -0.070081
0.179730 0.377162 -0.479571
0.138072 0.274094 0.157989
0.194253 0.379288 -0.291057
0.329578 -0.052632 -0.050729
-0.066307 0.377290 0.154353
-0.030906 -0.351018 -0.189147
-0.261715 0.374452 -0.480503
-0.334886 0.209793 -0.042484
0.203653 -0.350837 -0.439957
-0.266818 -0.363191 -0.087452
-0.332837 0.025561 -0.044815
-0.011011 0.148242 0.188823
0.332751 -0.338248 0.078336
0.142980 0.095574 0.315620
0.014751 0.148235 0.254517
0.064343 -0.147783 0.282936
-0.332170 -0.110225 -0.269484
0.242931 -0.192208 0.155033
-0.332778 -0.202900 -0.128088
0.243371 -0.363729 -0.092452
0.108404 -0.138776 -0.499234
-0.335741 0.260419 -0.172919
0.333468 0.024022 -0.464872
0.331007 -0.288553 0.041034
-0.096703 -0.244692 0.153751
-0.082680 0.375687 -0.486363
-0.334978 -0.362536 -0.403624
0.110499 -0.367094 0.124842
-0.136923 0.131123 0.383972
0.218671 -0.362612 -0.230829
0.139094 0.151375 0.150012
-0.110180 0.005486 0.499583
0.331128 -0.251784 -0.293012
0.301245 -0.363170 -0.330365
0.111517 -0.268569 0.153831
0.331900 -0.049304 -0.425035
-0.058522 -0.371322 0.136042
-0.276112 -0.366582 0.154416
-0.163895 0.048262 -0.499118
0.330623 -0.003015 -0.152002
0.298744 0.378857 -0.134225
0.080649 0.377878 -0.325225
0.332634 -0.191029 -0.431644
0.137376 -0.146798 0.233884
0.111035 -0.146837 0.238077
0.189848 -0.103752 0.154541
0.310054 -0.186421 -0.500000
-0.310711 -0.104907 -0.499965
-0.334649 -0.268967 -0.458955
-0.137588 0.145549 0.415632
0.117101 -0.378510 0.099941
0.049662 0.378648 -0.243759
0.001030 -0.149858 0.499035
-0.339018 0.360255 0.096703
-0.333284 -0.032118 -0.478031
0.010488 0.069434 0.499900
-0.333426 0.053727 -0.427527
0.258114 0.380372 -0.230824
-0.068025 -0.166622 -0.499425
0.331291 -0.175857 0.066504
0.335875 -0.357436 -0.466651
-0.138460 -0.035347 0.498699
-0.114753 -0.202288 0.153910
-0.096528 -0.362329 -0.102636
0.292674 -0.358775 0.155773
-0.138839 0.089781 0.188010
0.111018 -0.143983 0.162622
0.330421 0.192674 -0.101444
0.143650 -0.082626 0.242022
0.330196 -0.152923 -0.037787
-0.268334 0.378421 0.085445
-0.138223 0.092067 0.346775
0.084037 0.277450 0.158386
-0.335951 0.285740 -0.360813
0.101359 -0.147592 0.345899
0.073132 -0.361209 -0.335544
0.330560 -0.202681 -0.122734
-0.283271 -0.363047 -0.131896
0.153611 0.378560 -0.063104
-0.261600 -0.288173 -0.500000
0.330759 -0.311907 0.045745
-0.092043 0.378173 0.071494
-0.109565 0.378347 -0.275462
-0.269938 -0.349629 -0.108789
-0.333907 -0.158901 -0.464411
-0.337635 -0.261331 0.156652
0.182385 0.379229 -0.115899
0.182110 0.379175 -0.232786
-0.332599 -0.189636 -0.003110
0.340252 0.046299 0.142295
0.075026 0.378965 0.028672
0.052586 0.294118 -0.500000
-0.100072 0.375011 -0.500000
-0.185034 -0.146718 0.154368
0.106194 0.378911 -0.175739
-0.299702 0.377450 -0.214140
0.144901 0.073413 0.195705
0.199086 -0.362637 -0.163028
0.004053 -0.097623 0.499337
0.137105 -0.361601 -0.296648
-0.085703 -0.203107 -0.499299
0.338710 -0.331594 0.157631
0.329670 0.378744 0.157381
0.331235 0.311125 -0.393937
-0.139858 -0.145930 0.439052
-0.336596 0.092256 0.141832
0.155970 -0.364094 -0.013901
-0.137727 0.067833 0.286690
0.331137 -0.363591 -0.328002
-0.097990 -0.351278 -0.180648
-0.333929 -0.054136 0.107407
-0.275247 -0.289331 0.155158
-0.332332 0.004913 -0.357117
0.334633 -0.322805 -0.477105
-0.239309 -0.266759 -0.500000
-0.332297 -0.075042 -0.238656
0.330521 -0.002338 -0.220499
-0.108569 -0.178485 0.153839
0.143280 -0.113145 0.278281
0.143737 0.066003 0.268591
-0.137743 0.029827 0.269306
-0.306656 -0.350081 -0.313226
-0.121900 -0.360653 -0.380930
-0.072498 0.179522 0.148374
0.143389 0.011568 0.293730
0.142281 0.109051 0.465478
0.050286 -0.148086 0.240342
-0.046357 0.251861 0.155194
0.327053 -0.333589 -0.500000
-0.334487 -0.352049 -0.119144
-0.314591 0.081047 -0.499809
0.331248 0.232340 -0.131709
0.341389 0.350972 0.159018
0.162324 0.376620 -0.500000
-0.137319 0.116201 0.295829
-0.333120 -0.256694 -0.293724
-0.241094 -0.362054 -0.112175
-0.203637 -0.364469 0.089918
-0.332433 -0.286483 -0.156496
-0.154393 -0.360818 -0.346323
0.191378 0.047040 0.156493
-0.170810 0.322391 -0.499880
-0.295800 0.073650 -0.500000
-0.023209 0.023057 -0.499260
0.300261 0.379071 -0.181685
0.339381 0.142265 0.151267
0.199476 -0.162023 0.154420
0.331855 0.355269 -0.408485
-0.175663 0.151230 0.158733
-0.332997 -0.278161 -0.254826
0.330638 -0.066836 0.007771
0.332573 -0.001218 -0.450318
-0.325433 0.377922 -0.352430
0.331860 0.139178 -0.193837
0.332166 0.239105 -0.356585
0.095408 0.376095 -0.480284
-0.333243 0.054180 -0.005729
-0.012669 0.086034 0.500000
-0.236479 0.377407 -0.282882
-0.150079 0.105944 0.156161
-0.317926 0.375527 -0.474111
0.301253 0.300780 0.158498
-0.146695 -0.361413 -0.183631
0.123716 0.053106 -0.499610
0.062186 0.376839 -0.429960
-0.337743 -0.351935 0.142381
-0.302596 0.275052 0.159673
0.239076 -0.060502 0.155883
0.028744 -0.148391 0.212181
0.144557 0.039090 0.184802
0.142817 0.036328 0.464217
0.252021 -0.363858 0.001179
0.329961 -0.183393 -0.234979
0.334736 0.194438 -0.499662
-0.332817 0.058580 -0.234264
0.071953 -0.361116 -0.498209
-0.286334 0.237562 -0.500000
-0.136647 0.120156 0.499574
-0.292047 0.300160 0.159473
0.012939 0.299597 -0.499437
0.139421 0.026871 0.499749
-0.335995 0.237687 0.067413
0.206065 -0.363263 -0.135722
0.284922 -0.350102 -0.059978
-0.076335 0.377920 0.118693
-0.334925 0.142114 -0.466264
0.221307 0.278620 -0.500106
-0.094042 -0.149849 0.348920
0.067690 -0.349630 -0.205066
-0.271206 -0.363061 -0.110922
0.329690 -0.026505 -0.256879
0.140849 -0.140264 0.433357
-0.095031 -0.041611 -0.499386
0.001979 -0.148146 0.217257
0.177598 -0.376339 0.128856
-0.137729 0.005534 0.279409
-0.338440 0.366393 0.066970
0.099584 0.147070 0.198610
-0.224308 -0.100771 -0.500000
-0.136961 -0.112321 0.246554
0.001576 -0.182867 0.154260
0.330243 -0.110229 0.023547
0.338472 -0.054735 0.137949
-0.003512 -0.146379 0.171284
-0.332207 -0.049275 -0.197829
-0.071380 0.121140 0.499782
-0.090572 -0.148654 0.310509
0.109173 -0.362480 -0.166062
-0.338715 0.378518 0.035726
-0.137111 0.123365 0.335764
-0.258912 -0.352641 -0.034079
-0.008535 -0.152337 0.474328
0.234980 0.362366 -0.257430
-0.136711 -0.064834 0.244529
0.041216 0.356660 0.159114
0.319981 0.030667 -0.499969
-0.137552 -0.022977 0.266773
-0.138813 0.058325 0.452662
-0.181223 -0.061012 0.155886
-0.336188 0.267317 0.066796
-0.268634 0.083112 0.158732
0.088647 -0.147107 0.284417
-0.225530 -0.362629 -0.239995
0.329858 0.048152 -0.298542
-0.278997 0.058346 -0.500000
-0.149709 -0.362134 -0.098465
0.331230 -0.262203 0.007488
-0.334897 0.223846 -0.353451
0.002667 -0.016468 0.500004
0.050941 -0.360319 -0.377010
0.153592 0.378246 -0.336951
0.333602 -0.350610 -0.316265
-0.332328 -0.167493 -0.108346
-0.138176 0.066566 0.171323
0.143163 0.063142 0.485093
0.330720 -0.118642 -0.001212
-0.197312 -0.350610 -0.236795
0.330339 -0.059397 -0.184008
-0.271760 -0.080663 -0.499721
0.330606 0.025874 -0.321655
0.022168 0.147919 0.395587
0.332439 -0.353553 -0.020775
0.091358 0.343209 -0.500000
0.099255 -0.361823 -0.216139
-0.227856 -0.282689 0.154809
-0.074142 -0.180503 0.154353
0.145451 -0.029093 0.203697
-0.136575 -0.300631 -0.499862
-0.137519 -0.057067 0.297007
0.042639 -0.362719 -0.023284
0.332376 -0.304278 -0.346374
-0.337748 0.326180 -0.488223
0.146462 -0.116817 0.146746
-0.134658 0.149339 0.337291
-0.336584 0.237455 -0.453393
0.076333 -0.055386 -0.499499
0.152871 -0.351008 -0.061674
-0.136582 0.143539 0.359844
-0.336538 -0.142571 0.142792
-0.094424 0.115484 0.499796
-0.145243 -0.164960 0.154482
0.249213 -0.045503 -0.499816
-0.046902 0.378406 -0.201236
0.142895 -0.070782 0.368978
0.331655 0.203954 -0.341836
0.300798 0.378416 -0.355669
0.263198 0.379305 -0.092547
0.329744 0.048854 -0.149096
-0.063022 0.377324 -0.328928
0.331993 0.050875 0.005913
-0.038539 0.147782 0.360429
0.088031 0.145926 0.181819
0.027517 -0.349598 -0.206840
-0.335533 0.253859 -0.196192
0.331573 -0.277766 0.061043
-0.334249 -0.215656 -0.477641
-0.157518 0.376846 -0.437860
-0.223507 -0.054395 0.156494
0.187238 -0.352070 -0.122883
-0.196667 0.377811 -0.220759
-0.280295 0.378551 0.108889
0.321048 -0.369454 0.143058
-0.336001 0.293904 -0.278972
0.140274 0.107171 0.499484
-0.108501 0.162905 -0.499644
-0.336078 0.267610 -0.376620
-0.205187 0.376016 -0.401034
-0.056342 0.002345 -0.499005
-0.332951 -0.301116 -0.009025
0.065118 0.376232 -0.467353
0.216439 -0.161827 -0.499736
0.008557 0.378807 0.028201
-0.332947 -0.180168 -0.321393
-0.210503 0.378013 -0.168208
0.248636 0.265318 -0.500240
0.256601 0.203323 -0.500000
0.109132 0.148107 0.339163
0.128499 0.378770 -0.175383
-0.337972 0.347704 -0.423979
0.034447 -0.178718 0.147831
-0.167680 -0.025094 0.156653
0.232648 0.346747 0.158744
-0.160734 0.257112 -0.499510
-0.332604 -0.066787 0.019604
-0.172727 -0.364202 0.057630
0.040925 -0.149685 0.395061
0.332739 -0.111946 -0.451174
0.333681 0.229885 -0.481852
0.040171 -0.365677 0.092814
-0.313061 -0.268373 0.156262
-0.046935 0.233297 -0.499632
-0.332476 -0.147642 -0.283849
0.331299 0.109404 -0.156922
-0.332572 -0.276158 -0.214848
0.176849 -0.306293 0.155303
0.135549 -0.219602 -0.500000
-0.334945 -0.323031 -0.457600
0.008143 -0.350191 -0.225846
-0.333258 0.015741 0.088730
0.201996 0.332004 -0.500000
-0.039125 -0.361038 -0.494229
0.332124 0.306401 -0.205083
-0.199184 -0.361138 -0.339205
-0.244200 -0.363905 0.043158
-0.341328 0.369302 0.148084
0.271396 -0.353299 0.018840
0.106920 -0.361475 -0.490781
0.078340 0.378890 -0.079499
0.211286 -0.187727 0.154367
0.188372 -0.075754 0.144152
-0.333277 0.007331 -0.418969
0.332024 0.002782 -0.424454
-0.239215 0.245795 -0.500000
-0.137527 -0.371298 0.072077
-0.335709 0.289131 -0.191607
0.329529 -0.126638 -0.030670
0.134957 0.317719 -0.500000
0.333143 0.342866 0.026836
0.301534 -0.350933 -0.278067
-0.032264 -0.017382 0.499773
-0.156554 -0.366606 0.127791
-0.083191 -0.198118 0.153693
0.218316 -0.375110 0.095602
0.100163 0.252670 0.157803
-0.139737 -0.059897 0.411445
-0.199484 -0.014458 0.157179
-0.338863 0.296334 0.160269
0.134646 -0.361421 -0.332180
-0.145368 -0.362483 -0.136628
-0.332978 -0.168353 -0.360096
-0.196440 -0.082144 -0.499497
-0.302463 0.377771 -0.258193
-0.180409 -0.362932 -0.060180
-0.332250 -0.119211 0.035097
-0.110080 -0.368274 0.134344
-0.168774 -0.089680 0.153395
0.333815 0.284399 -0.480340
0.150407 -0.362740 -0.161815
-0.336168 0.255502 -0.408645
-0.242012 -0.226929 0.154981
-0.336777 0.341205 0.079494
-0.332743 0.035155 -0.151135
0.341431 0.289751 0.143197
-0.122185 0.148442 0.293642
0.160207 0.243370 -0.500000
0.331748 -0.271823 -0.359596
0.070135 -0.204995 -0.499684
-0.333297 -0.101779 -0.463880
-0.288977 -0.232786 0.156271
-0.146864 0.377714 -0.000764
0.142799 -0.022741 0.443734
0.025190 -0.360569 -0.381521
0.097433 -0.352500 0.051965
-0.017683 0.058338 0.499887
-0.308200 0.377678 -0.170197
-0.113876 -0.149820 0.403570
0.130998 0.293506 -0.500000
0.091512 -0.349786 -0.312197
0.321593 -0.365825 0.010865
-0.335904 0.263663 0.003253
-0.332753 -0.234494 -0.113700
0.011402 0.378338 -0.068903
-0.231039 -0.223468 -0.500115
-0.065379 0.147707 0.315691
0.334446 0.378621 -0.144821
-0.332980 0.009653 0.048536
-0.011551 -0.363471 -0.015719
-0.138420 0.093304 0.388893
0.028283 0.377721 -0.332118
-0.334800 0.235638 -0.132700
0.214567 -0.003808 -0.499811
-0.313306 0.100629 0.160116
0.144717 0.015642 0.199285
0.143421 0.054638 0.352199
0.063649 -0.149337 0.420354
0.142506 0.008527 0.437945
-0.229245 -0.361800 -0.146044
0.216540 0.379151 -0.121030
-0.012975 0.378345 -0.054133
0.143227 -0.071968 0.292681
0.257390 0.304730 0.158316
-0.060325 -0.349296 -0.439903
-0.097434 -0.343858 -0.500000
0.231817 -0.362553 -0.190352
0.312766 0.378155 -0.097193
0.189658 -0.255911 -0.500000
-0.061790 -0.152100 0.498637
-0.334059 -0.276633 -0.420130
0.331331 0.262814 -0.059547
-0.193751 0.002243 -0.499411
-0.228521 -0.247327 0.154568
-0.338167 0.264323 -0.496975
-0.051610 -0.344214 -0.500000
-0.333728 0.143637 -0.187620
-0.028256 0.377499 0.157700
0.241174 0.379516 -0.153782
-0.137952 0.076481 0.319723
-0.306216 -0.363504 -0.081054
-0.314905 0.255958 -0.500000
-0.338141 0.373267 -0.064797
0.336361 -0.367217 0.124580
0.119024 0.110383 -0.499552
0.330930 -0.242601 -0.012830
0.301223 -0.363467 -0.237253
-0.015095 0.147464 0.388177
0.331712 0.216739 -0.061564
-0.023032 0.379071 -0.112317
-0.000482 -0.197494 -0.499781
0.058311 -0.325946 -0.500000
-0.043743 0.169447 -0.499473
-0.332624 0.032224 -0.239616
0.143897 -0.009408 0.315066
-0.151171 -0.103589 -0.499420
-0.333206 -0.279068 0.077750
0.022564 -0.376256 0.099446
0.333052 0.030931 0.099722
-0.019749 -0.349452 -0.323328
0.268845 0.279389 -0.500000
0.278393 -0.352762 -0.187537
0.135671 0.378494 -0.034858
-0.313408 0.188761 -0.500000
-0.046729 0.119475 -0.499517
0.333090 0.058862 0.092281
-0.244514 0.377967 0.102904
-0.019519 0.378518 -0.080889
0.118171 -0.376745 0.121084
0.080152 0.227888 -0.499922
-0.332289 -0.198428 -0.034976
0.330083 0.106776 -0.269738
0.052227 0.131744 -0.499511
-0.138493 -0.050048 0.367612
0.330532 -0.303261 -0.096067
-0.340539 0.378164 0.122334
0.329954 -0.149944 -0.066775
-0.138787 0.036639 0.354277
-0.127664 -0.365713 0.112089
-0.138900 -0.020496 0.363210
-0.229297 0.134349 0.158329
-0.026441 0.378393 -0.024420
0.196679 -0.366531 0.058110
0.039573 -0.360904 -0.356162
0.164148 0.350138 -0.500000
-0.259973 0.375380 -0.445748
0.014490 -0.361742 -0.246203
-0.050746 -0.257541 -0.499813
0.032277 -0.280822 0.153938
-0.021175 -0.199201 0.153455
-0.086686 -0.241201 -0.499926
0.332134 -0.033929 0.096491
0.093605 0.145638 0.459150
-0.171931 0.378043 -0.194899
-0.068543 0.160675 0.179099
0.332186 0.344077 -0.291550
0.275052 -0.297779 0.155765
0.143010 0.119272 0.355926
0.331467 0.064853 -0.404135
-0.118874 0.378481 -0.099372
-0.062653 0.147218 0.402736
0.035981 0.147912 0.223058
-0.161496 -0.180941 -0.499476
0.330989 0.102593 -0.117204
-0.137514 0.035059 0.205952
-0.335426 0.238866 -0.388936
-0.176082 -0.362622 -0.056352
-0.137745 -0.142843 0.359729
-0.196247 0.377831 -0.019366
0.129998 -0.350612 -0.500000
-0.333916 -0.364758 0.002515
-0.332972 0.068673 -0.099476
0.168952 -0.376304 0.071142
-0.078952 0.147470 0.232699
-0.333409 -0.185401 -0.474912
0.331273 0.267707 -0.182534
0.330775 0.005812 -0.188756
-0.335800 0.280427 -0.161206
0.142258 0.097272 0.414568
-0.156663 0.010915 -0.499407
0.188454 0.379021 0.077515
0.062998 -0.363635 0.018278
0.254407 -0.214866 0.154926
-0.243311 0.376086 -0.382912
0.049897 0.189169 -0.499546
-0.154704 -0.361635 -0.156119
0.054774 0.148489 0.361156
-0.250586 0.266532 0.159631
0.136540 0.377399 -0.436989
-0.333227 -0.226109 0.002423
0.082341 0.089720 0.500000
-0.332898 -0.302390 -0.264796
0.249033 0.225589 0.157604
-0.289361 -0.114754 -0.500000
0.163988 -0.362472 -0.211664
0.022195 -0.149875 0.395009
-0.080493 -0.362920 -0.270446
-0.249651 -0.274981 0.154810
-0.184130 0.348921 0.159444
-0.139247 0.142012 0.479329
-0.135943 0.041825 0.498747
0.331984 -0.315076 -0.364901
0.331782 0.280420 -0.263962
0.141284 -0.146096 0.253360
0.292174 -0.150113 -0.500000
0.115177 -0.147630 0.332647
-0.147037 -0.263478 -0.499904
-0.189986 0.326084 0.158810
0.006077 0.378353 -0.036522
-0.164423 0.115992 0.158532
-0.137426 0.012865 0.179320
-0.137070 -0.024986 0.241510
0.332509 0.274637 -0.442094
0.319342 -0.228087 -0.500000
0.069637 -0.349712 -0.263280
0.229199 -0.028822 -0.499928
-0.003087 -0.147992 0.284939
0.233424 -0.352602 -0.042849
-0.254985 0.104829 0.158952
0.053042 0.151849 0.185360
0.030646 0.044303 -0.499390
0.138665 0.378893 -0.249070
-0.102332 -0.013441 0.381315
0.108473 0.313464 0.158370
-0.333519 -0.138632 -0.424885
-0.078478 -0.327336 -0.500000
0.330523 -0.059053 -0.149340
0.135304 0.146769 0.404876
0.142792 -0.064730 0.408186
-0.140428 -0.359696 -0.459807
-0.332830 -0.222661 -0.249990
0.336098 0.361498 0.082685
0.162463 0.034696 -0.499361
-0.113141 0.309815 -0.499988
-0.338175 0.366408 -0.171951
0.143090 0.115982 0.288707
0.021209 0.145488 0.455634
0.330375 -0.306047 -0.173228
-0.033233 0.378276 -0.324390
0.191111 -0.079702 0.154379
-0.066283 -0.360907 -0.367580
-0.275411 0.025458 0.158460
0.045766 -0.375884 0.117436
0.331775 0.140273 -0.119061
-0.332268 -0.130534 -0.248007
0.054717 -0.361839 -0.227766
-0.335198 -0.366735 0.125494
0.296840 0.173599 -0.500000
-0.134175 0.147443 0.193925
0.143825 -0.033036 0.180242
0.274060 -0.151011 0.155757
0.330676 0.022105 -0.106746
-0.332778 -0.051476 -0.374006
-0.137278 -0.046734 0.260235
0.330028 -0.143948 -0.091561
-0.019520 -0.147303 0.143767
-0.281382 0.378416 0.023603
-0.334872 0.223428 -0.310682
-0.332873 -0.183895 0.047733
0.330597 0.071483 -0.231720
-0.181621 -0.238927 -0.499870
-0.087190 0.297677 -0.500000
0.331738 0.157378 -0.381802
0.333213 0.220455 0.064131
0.000104 0.378758 -0.180143
0.298249 0.031559 -0.500000
0.236722 -0.021637 0.156378
0.145024 0.068826 0.174256
-0.336789 -0.053656 0.159554
-0.334752 0.062145 -0.498004
-0.332999 -0.251399 0.032742
-0.135089 -0.361002 -0.281476
-0.333038 -0.074184 0.093546
-0.271364 0.264392 -0.500000
0.339856 0.359487 0.129190
0.175970 -0.371815 0.109391
0.315045 -0.143995 0.157765
-0.087684 0.376055 -0.450577
-0.333951 0.145760 -0.283864
0.332375 0.317699 -0.442562
-0.030855 0.146676 0.419060
0.050881 0.140034 0.499892
-0.041638 0.345779 -0.500000
0.049719 0.212619 0.150089
0.076637 -0.020848 0.499846
0.332542 0.316704 -0.166424
0.034735 0.316611 -0.500784
-0.056127 -0.361614 0.004784
0.274618 0.365844 0.047944
0.327730 -0.197040 -0.198851
0.259224 0.381561 -0.276724
0.198737 -0.028619 -0.499695
-0.334425 -0.124491 0.113836
-0.311714 0.238266 0.159030
-0.144429 0.034976 -0.499861
0.160950 -0.204926 -0.500000
-0.336335 -0.356084 -0.088479
-0.333783 -0.278061 -0.319333
0.076315 0.275453 -0.500000
-0.067769 -0.360331 -0.141712
0.328149 -0.023158 -0.169215
-0.337664 -0.263414 -0.497145
0.251282 -0.241376 0.154762
0.329540 -0.281016 -0.074168
-0.332320 -0.365998 -0.033770
0.330542 0.223666 -0.002526
-0.338131 -0.172932 0.158891
0.134684 -0.303629 -0.500213
-0.044840 -0.344229 -0.414982
-0.335024 0.163060 -0.084138
-0.133147 -0.140895 0.200729
-0.254362 0.378288 0.004344
-0.148523 0.377294 0.063026
-0.336418 0.229621 0.012854
-0.051769 -0.148563 0.322572
0.331146 0.317434 -0.131730
-0.166971 0.377982 -0.134381
-0.334189 0.119904 -0.390809
0.068261 0.149098 0.216113
-0.332053 -0.020692 -0.207535
0.242807 -0.073143 -0.500000
0.331662 0.108742 0.063018
-0.332866 0.022887 -0.296825
0.328801 -0.110609 -0.361592
-0.335032 0.344592 -0.299085
0.268180 0.047448 -0.501004
-0.131123 0.373284 -0.500021
-0.072578 0.210744 -0.500000
-0.168462 0.378007 -0.164422
-0.287358 -0.192453 0.155910
-0.093443 0.144464 -0.499957
-0.219556 0.118656 -0.499531
-0.055344 -0.152254 0.461794
0.330729 0.263347 -0.360773
-0.336261 0.260275 0.100727
-0.332813 -0.324101 -0.289310
0.330916 0.171053 -0.386688
0.286355 0.377614 -0.410623
-0.333704 -0.317702 -0.239747
0.114487 -0.061903 0.500664
0.103425 0.378466 -0.092769
0.057634 0.378265 0.001728
-0.333395 -0.178915 -0.414856
0.329934 0.032085 -0.413690
-0.138161 -0.083305 0.351526
0.283715 0.378532 -0.020386
0.087589 -0.180222 -0.500000
0.082081 0.200306 -0.500000
0.165489 0.001537 -0.500113
-0.333255 -0.252690 0.062815
-0.073414 -0.359472 -0.499277
-0.333572 0.124080 -0.053941
0.021053 0.130819 -0.499698
-0.169934 0.351367 -0.500000
0.128811 -0.174195 0.149698
0.330088 -0.101795 0.056429
0.331097 -0.198697 -0.402003
0.106892 -0.350035 -0.016787
-0.014353 0.378755 -0.138152
0.328310 -0.011722 -0.023654
-0.092779 -0.359475 0.041808
0.073894 0.021583 -0.500000
0.184557 -0.226599 -0.500000
-0.035712 -0.357125 -0.365522
-0.334041 0.090854 -0.259457
-0.332257 -0.050130 0.069769
0.112886 -0.359896 -0.240938
-0.334785 0.262658 -0.335207
0.328220 -0.151414 0.049986
-0.096937 -0.147911 0.195402
0.329553 -0.290325 -0.411735
-0.334330 0.012545 -0.005920
-0.333417 -0.204430 -0.304504
-0.336878 -0.096933 0.134909
0.172775 -0.362481 -0.073977
0.059623 -0.349277 0.154655
0.328987 0.187592 -0.250038
0.333324 0.248278 0.094283
-0.258435 -0.362113 0.070912
-0.319874 -0.294609 0.155866
0.328626 0.253811 -0.284991
0.329253 0.164303 -0.247855
-0.157903 0.314038 0.158114
0.118759 0.019502 -0.500185
-0.174857 -0.177643 0.154872
0.082453 -0.362655 0.074515
-0.058662 -0.361819 0.094704
-0.254217 -0.340755 -0.499864
0.336333 -0.290858 0.139985
-0.334474 -0.303729 -0.198647
0.291892 0.206455 0.158887
0.113693 0.074549 0.500000
0.193212 -0.025660 0.153852
-0.332375 0.049224 -0.207997
0.308894 0.378206 0.058374
-0.062048 -0.148794 0.388000
0.065011 0.376337 0.095837
-0.168680 -0.351675 -0.231278
0.025671 -0.032095 -0.499906
-0.332727 0.049714 -0.032170
0.030728 0.376956 -0.388946
-0.232371 -0.118751 0.154269
0.250802 0.378089 -0.124754
-0.008828 0.378140 0.092386
0.329026 -0.171917 -0.154139
0.328051 0.021595 -0.051066
0.242999 0.138286 0.157599
-0.333793 -0.095327 -0.325893
0.328649 -0.024719 -0.225345
-0.335689 0.078297 -0.447430
-0.161440 0.281664 0.158012
-0.314269 0.378295 0.100180
-0.304507 0.379958 0.128548
0.331095 0.243312 0.006599
0.273515 -0.362826 -0.013162
-0.334294 -0.079291 -0.469084
0.043726 -0.357176 -0.465392
-0.185043 0.376517 0.051789
0.330629 0.182776 -0.194278
0.083031 0.378303 -0.240318
0.271682 0.380142 -0.172284
0.106913 0.377018 -0.021192
-0.042899 -0.023212 -0.499677
0.327870 -0.120896 -0.099034
-0.336368 0.159120 -0.406487
0.199931 -0.132624 0.154052
0.087941 -0.363198 -0.002533
-0.145329 0.377330 -0.118331
-0.152963 -0.132703 0.153753
0.289066 -0.319191 -0.500000
-0.145094 -0.359190 -0.393812
-0.129692 -0.360493 -0.248181
-0.105484 0.247364 -0.499847
0.190053 0.129785 -0.500541
0.218071 -0.113296 0.153369
-0.336565 0.309382 -0.150925
0.296233 -0.364230 -0.299959
-0.084769 0.378239 0.015429
0.304870 -0.033746 -0.500000
0.246191 -0.353091 -0.270929
0.140723 -0.056120 0.445412
-0.107303 -0.361608 -0.232465
-0.122722 -0.359277 -0.092833
0.210658 0.377995 -0.153428
-0.172373 -0.050249 -0.499748
-0.333845 -0.313900 0.058145
-0.332951 -0.115413 -0.022862
0.329356 0.169725 0.023290
-0.200264 0.221641 -0.500000
0.240143 0.378209 -0.065126
-0.256141 -0.360538 -0.367615
0.330040 0.175764 -0.003911
0.069910 -0.358477 -0.474264
0.234966 -0.362490 -0.131501
-0.017834 0.377979 -0.237046
-0.310834 -0.362789 -0.021263
-0.006503 0.148152 0.290033
0.330387 0.293424 -0.181906
0.327324 -0.107184 -0.122179
-0.257529 0.379705 0.130843
0.210474 -0.050914 0.154671
-0.332507 -0.012888 -0.177111
-0.152712 0.376132 -0.345841
-0.184904 0.040513 0.158444
0.329527 0.361497 -0.264753
-0.102929 0.053932 0.500211
0.329359 -0.091178 -0.355688
-0.120297 -0.327730 -0.500000
0.331997 0.250080 -0.460313
0.329707 0.231489 -0.387439
-0.333568 -0.248803 -0.264472
-0.335986 0.218693 -0.476778
0.254783 -0.089974 -0.500000
-0.179851 -0.355690 -0.357714
0.143790 -0.072395 0.171955
-0.226917 0.071075 -0.499851
0.328612 -0.036710 0.016769
0.328344 -0.287450 -0.144919
-0.334738 0.151262 -0.362133
-0.167943 -0.126672 -0.499481
-0.124041 0.377345 0.059022
-0.051793 0.193342 -0.500000
-0.195533 0.150867 -0.500000
0.219538 0.034659 0.158514
0.027054 -0.350124 -0.073760
0.165687 -0.359012 -0.384858
0.077489 -0.356278 -0.241140
0.284295 0.102782 -0.501303
0.135877 0.137892 -0.500206
-0.334545 0.168046 -0.308540
-0.309479 -0.340978 -0.500000
0.331400 0.338347 -0.336687
-0.331545 0.010663 -0.324355
-0.305173 -0.167000 0.155826
-0.334018 0.064452 0.075687
0.329940 0.168518 -0.427199
0.331802 0.168161 0.097956
0.081806 0.147460 0.314992
0.002725 0.056948 -0.500021
0.331193 -0.316542 0.106137
-0.057398 0.377412 0.075716
0.330139 0.093240 -0.401187
-0.241787 0.214114 0.158576
0.197714 0.304377 0.157609
-0.314222 -0.079487 0.159093
-0.334422 -0.179399 -0.388950
0.329537 0.228676 0.036457
0.330342 -0.127996 -0.500000
-0.336343 0.280954 -0.218856
0.328691 0.026045 -0.166950
0.272944 0.377139 0.163175
0.331561 -0.217566 -0.414363
0.246829 -0.172327 -0.500000
0.308748 -0.361336 -0.423244
0.042636 0.378226 0.029920
-0.098606 -0.371918 0.087618
0.096252 -0.340549 -0.500210
0.327969 -0.155622 -0.244426
-0.105813 0.377196 0.123109
-0.151990 -0.348797 -0.256862
0.328168 0.065675 -0.023126
0.111113 -0.147479 0.382259
-0.331126 -0.332703 -0.062039
-0.338249 0.297198 0.125643
-0.332595 0.010652 -0.166599
0.218530 0.378418 -0.429246
0.117779 0.376966 -0.063354
-0.074479 0.335945 0.158696
-0.136980 0.095519 0.461335
-0.167651 0.377330 -0.228935
0.201799 -0.362348 -0.417337
-0.336187 0.158168 0.081929
0.142735 -0.251093 -0.500000
-0.332276 -0.251642 -0.134413
-0.221063 -0.312367 0.154363
-0.037201 0.148356 0.297927
0.329391 0.045970 -0.219226
0.330161 0.205390 -0.221893
0.328824 0.117193 -0.356390
0.329718 -0.282827 -0.331312
0.061580 0.161118 -0.500056
0.213006 0.136889 -0.500825
-0.086523 -0.349323 -0.346268
0.328332 -0.214405 -0.247550
-0.137403 -0.078102 0.274835
0.329706 -0.334428 -0.266411
-0.003392 0.378693 0.126537
-0.145885 -0.335230 0.152681
-0.307456 -0.016889 0.158125
0.038996 -0.360243 -0.176690
0.327254 0.018903 -0.292870
-0.338066 0.329762 -0.446218
0.282933 -0.122620 0.156028
0.329809 -0.126990 0.052001
-0.182121 -0.363417 0.113624
-0.341417 0.322131 0.131977
0.031834 0.374646 -0.474464
0.271064 -0.181673 0.154808
0.336633 0.169706 0.125655
0.090183 0.094380 -0.500133
-0.023871 -0.362042 0.036042
0.236035 -0.371780 0.128140
-0.011716 0.376052 -0.379025
0.109419 0.377503 -0.330770
0.040783 0.079249 -0.500069
-0.294354 -0.247389 -0.500000
0.062017 -0.349101 -0.305454
-0.335427 0.095863 -0.468010
0.016702 0.105220 0.500965
-0.335998 -0.240836 0.128334
-0.132157 -0.258085 0.153217
-0.234334 -0.361044 -0.014780
-0.216803 -0.360512 -0.119840
-0.315063 0.351353 -0.500000
-0.060179 0.377731 -0.300466
-0.307711 0.141003 0.157546
0.280041 0.378262 0.121820
0.256870 -0.367805 0.156302
-0.268310 0.295973 -0.499676
0.329085 -0.259722 -0.090814
0.275532 -0.359577 -0.472172
-0.162337 -0.235550 0.154835
0.328525 -0.207245 -0.315621
0.329004 0.150649 -0.350127
0.326499 -0.359309 -0.160464
0.327215 -0.007707 -0.277798
-0.335384 -0.232246 -0.499783
-0.341346 0.376397 -0.001253
-0.121410 0.200455 0.157109
0.186446 0.377934 -0.397040
0.095219 -0.144947 0.205696
0.328663 -0.327477 -0.192658
-0.337770 0.272761 0.134176
0.093858 0.377396 -0.384600
0.338661 0.235561 0.143548
0.119466 0.147550 0.225053
-0.018345 -0.358281 -0.434351
0.331742 0.357858 -0.194963
0.308350 -0.359703 -0.476340
-0.127407 0.350976 -0.501265
0.328919 -0.281667 -0.200439
-0.000301 -0.348867 0.025787
-0.302796 -0.161851 -0.500000
-0.044821 -0.285348 -0.500587
-0.216836 -0.361846 0.022744
0.327527 -0.313242 0.013958
0.329394 0.368473 -0.176335
-0.124790 -0.146534 -0.499455
-0.335537 0.188928 -0.467332
0.328574 -0.085100 -0.234507
-0.333018 0.066013 -0.058912
-0.075984 0.120729 -0.500409
0.272543 0.378838 -0.116749
-0.332891 -0.101729 -0.383052
0.175353 -0.362838 -0.256684
0.252967 -0.350776 -0.173839
0.262173 0.153719 0.155766
-0.336118 0.244438 -0.223410
0.330326 0.115474 -0.003367
-0.200182 0.072558 -0.499737
0.025358 -0.341785 -0.335843
0.331750 0.278192 -0.109515
-0.217192 -0.347622 -0.316728
-0.144281 -0.143850 0.398308
-0.336310 0.307714 -0.220569
0.328472 -0.145538 -0.007245
-0.085345 -0.010426 -0.499862
-0.334699 0.133857 -0.022167
0.334099 0.379280 -0.077114
-0.214026 -0.361208 0.059616
-0.053556 -0.310068 -0.501184
0.079647 0.149255 0.342964
-0.099599 0.311839 0.158724
-0.046184 -0.282826 0.152980
0.037687 -0.357751 0.014224
0.141146 -0.118319 0.402336
0.272867 0.329517 -0.500000
0.327892 -0.165711 -0.303860
-0.058369 -0.148036 0.352637
0.159054 0.172304 0.155437
-0.337413 0.197911 0.122022
0.307971 0.376937 -0.036413
0.329640 -0.100109 -0.082816
0.134800 -0.139433 -0.500045
0.326542 0.089439 -0.257153
0.082102 0.212733 0.157779
-0.022286 -0.033304 -0.500096
-0.337139 0.296575 0.016266
-0.184887 0.106723 -0.499273
-0.273981 -0.050286 -0.500000
0.033434 0.106443 -0.499852
0.236967 0.380458 -0.333602
-0.333564 0.007279 -0.124426
-0.166035 0.377110 0.126288
0.235069 0.356881 -0.441000
0.327277 0.072692 -0.311224
0.331009 0.325462 -0.468982
0.327365 -0.124126 -0.062949
0.329154 0.248924 -0.427200
-0.064836 0.165074 -0.498905
0.025304 0.211471 -0.499821
0.227955 0.378320 -0.183782
0.161080 -0.348101 -0.308613
0.052881 0.377934 -0.274397
-0.333085 -0.256813 -0.189918
-0.163425 -0.303288 0.154699
0.329645 0.244803 -0.030101
0.064425 -0.358866 -0.420711
-0.334072 0.179344 -0.287136
0.336142 0.284461 0.112459
-0.043081 -0.362622 -0.018296
0.116205 0.267893 -0.500000
-0.335114 0.192581 -0.356834
-0.333233 -0.303056 -0.333270
-0.221124 0.377157 -0.038782
0.330099 0.146383 -0.228684
0.095526 0.378049 -0.046545
0.335344 0.377212 -0.332050
0.098455 0.030889 -0.500463
0.331250 -0.346051 -0.285099
0.143291 -0.035447 0.369998
-0.134755 -0.352713 -0.318247
0.115774 -0.360356 -0.359120
0.329845 0.348592 -0.245928
0.326825 -0.358790 -0.185497
0.147354 0.141560 0.246643
0.332834 0.018841 -0.487357
0.252537 0.110864 0.157887
0.325911 0.027388 -0.272562
-0.338133 0.288052 -0.429634
0.058548 -0.025926 -0.499807
-0.134829 -0.076790 0.219723
-0.058963 0.373213 -0.502526
0.225403 -0.346770 -0.475154
0.330207 0.115594 -0.445341
0.142168 -0.146916 0.298618
-0.137993 0.037821 0.310526
-0.051148 0.292483 -0.500790
-0.170491 0.373747 0.157310
0.117932 -0.199502 -0.499588
-0.120852 -0.351246 -0.003125
0.164553 0.377376 -0.199483
0.306311 -0.077923 -0.500949
-0.333863 -0.063308 -0.454520
0.237714 -0.142118 -0.500000
-0.217199 0.375555 -0.468507
0.184985 0.378610 -0.175079
-0.225480 0.375584 -0.309950
-0.165369 0.072077 0.157175
0.327919 0.032523 0.068330
0.083240 -0.363016 -0.091158
0.329066 0.261056 -0.133902
0.255368 -0.239227 -0.500000
-0.140113 0.049343 0.392858
0.189864 0.018696 -0.500000
-0.117128 0.378250 -0.168252
-0.332765 -0.171065 0.081844
0.330375 0.183563 -0.222958
0.044912 -0.349496 -0.126817
-0.337211 0.348657 -0.113783
-0.336898 0.354670 0.001947
-0.333734 0.031450 -0.499016
0.195519 -0.049970 -0.500238
-0.334310 0.097065 -0.088146
-0.014502 0.376958 -0.274603
-0.072335 -0.360794 -0.050299
0.331257 0.053233 -0.455964
0.327845 0.030553 -0.076344
-0.233424 -0.358786 -0.311064
0.157602 -0.356370 -0.465169
0.333200 -0.262526 -0.466102
-0.109775 -0.082878 0.498320
-0.335600 -0.358394 -0.366065
-0.162012 0.076633 -0.500069
0.204871 0.328337 0.157335
-0.333066 -0.129041 -0.365487
-0.337985 0.318200 -0.458725
0.142777 -0.083464 0.268554
0.035194 -0.146020 0.307574
0.328286 -0.234272 -0.076965
-0.116686 0.069017 -0.500408
0.326093 0.378134 -0.383331
-0.306203 -0.363280 -0.049344
0.088661 -0.159125 -0.499908
0.101063 -0.301558 0.153560
0.313303 -0.345824 0.050747
0.327459 0.131077 -0.280133
-0.334500 0.131659 -0.307824
-0.066569 0.376338 -0.242723
-0.266219 -0.332029 0.153690
-0.029144 -0.357982 -0.415636
-0.332531 -0.216726 0.113829
0.136307 0.326748 0.159190
-0.275912 0.375776 -0.383458
-0.333410 -0.305843 -0.377672
-0.242150 0.377921 -0.229523
-0.285526 -0.360521 -0.185802
-0.132152 -0.228227 -0.500000
-0.301371 0.378606 -0.004093
-0.333094 -0.220498 -0.366233
-0.103176 -0.117693 0.498346
0.329128 -0.316880 -0.397783
-0.333484 0.121327 -0.331456
-0.081974 0.183285 -0.500000
0.130569 -0.150878 0.500000
0.207562 0.253647 -0.500605
0.069800 0.377996 -0.192419
0.334350 -0.320472 0.127532
0.005380 0.148533 0.215079
0.119596 -0.363147 -0.311474
0.125243 -0.358037 -0.409113
-0.336120 0.306095 -0.333559
-0.333214 -0.361457 -0.230502
-0.224517 -0.037215 -0.500037
0.294949 0.337042 -0.500000
0.330765 -0.216942 -0.380850
-0.332215 -0.197199 -0.343987
-0.277030 -0.339048 -0.500755
-0.165380 0.375059 -0.465496
0.211102 0.137305 0.156437
-0.203619 -0.160769 -0.500000
0.328500 -0.320357 -0.026028
-0.243769 -0.365132 0.153059
0.076032 0.378020 0.066895
-0.011130 0.169423 -0.500000
-0.334101 0.179196 -0.341479
-0.069069 -0.150875 0.423622
0.143237 -0.090790 0.427084
-0.276292 -0.144926 0.156061
0.333455 -0.153589 0.123018
-0.018279 0.372835 -0.503270
-0.332825 0.059933 -0.333404
0.222756 0.222477 -0.500000
0.269972 0.078001 -0.500065
-0.335219 0.181188 -0.241196
-0.295636 -0.360118 -0.495088
0.328070 -0.033458 -0.008058
-0.227165 0.144311 -0.499941
-0.331306 -0.309766 -0.071954
0.283705 -0.039297 0.157816
-0.226330 0.287749 0.158273
-0.177504 0.375681 -0.361345
-0.332886 -0.360506 -0.343941
-0.260305 -0.319404 -0.500000
-0.075496 -0.357158 -0.419047
0.170017 0.378910 0.132788
0.329776 0.098226 -0.349847
-0.333395 -0.128302 -0.080535
-0.179029 0.376116 -0.336433
-0.026347 -0.348046 -0.040280
-0.334376 0.251034 -0.311303
0.185103 -0.219231 0.154079
0.328077 -0.212150 -0.278877
-0.204239 -0.357339 -0.498591
0.330386 0.145510 -0.475008
0.315158 0.377567 0.088111
0.181271 -0.347361 -0.167308
-0.335232 0.183899 -0.191006
-0.138597 -0.093816 0.312412
0.329987 0.047247 -0.478649
-0.186935 -0.362896 -0.212123
0.329155 -0.322623 -0.248151
0.128001 0.208690 -0.500564
0.329754 0.209200 -0.187917
0.132882 0.377272 -0.084685
-0.092150 -0.176159 -0.499684
-0.036770 -0.059396 -0.500412
-0.332595 0.080569 -0.026453
-0.246785 0.289966 -0.500000
0.330670 0.348952 -0.445646
0.331240 0.332459 -0.081369
-0.336009 0.338681 -0.229843
-0.226143 -0.359818 -0.277215
0.115106 -0.363041 -0.044635
-0.069125 -0.027515 -0.500282
-0.004976 -0.361879 -0.203200
-0.148267 0.376219 -0.410228
0.113950 -0.172188 -0.499978
0.329055 0.186290 -0.166979
-0.245313 -0.359915 -0.084850
0.163338 -0.134012 -0.500000
-0.253817 0.184765 -0.500000
0.211509 0.377970 -0.057739
0.329759 -0.158667 -0.442102
0.310816 0.375092 -0.160708
0.139160 0.377070 0.112164
-0.137508 0.081505 0.424977
0.259194 0.036168 0.156901
-0.263183 0.375777 -0.061694
0.330908 -0.296229 -0.451052
-0.333679 0.031901 -0.102168
-0.210553 0.377956 0.103263
-0.333003 -0.001452 -0.446746
0.328654 -0.121923 -0.418208
0.297512 -0.349620 -0.157887
-0.334883 0.067448 0.024951
-0.305495 0.181548 0.159763
-0.160999 -0.284775 -0.500000
0.329618 0.330873 -0.403805
-0.332277 -0.120683 -0.051120
0.076736 -0.363177 -0.288231
-0.335036 0.352293 -0.032798
-0.255912 -0.001821 0.156723
-0.036333 0.377782 -0.261611
-0.335490 -0.352505 -0.202660
0.193716 -0.346062 -0.211057
-0.078942 -0.285575 0.153120
-0.332488 -0.135294 -0.219372
0.232096 -0.186193 -0.500000
0.329195 -0.002754 -0.337647
-0.196680 0.288653 -0.500292
-0.225724 0.376445 0.130677
0.330849 -0.234658 -0.415548
0.302883 -0.187764 0.157073
-0.337140 0.320655 -0.417794
0.099283 0.378205 -0.205441
0.330261 0.263412 -0.000607
0.330719 0.128368 0.023056
0.331133 0.051665 0.035934
0.327668 0.308379 -0.035857
-0.135108 0.377350 0.127730
0.327903 0.073710 -0.200895
0.137911 -0.145123 0.469908
-0.127825 -0.226469 0.153748
0.120188 -0.364116 -0.203366
-0.334786 0.129497 0.063751
-0.063084 0.378728 -0.072866
-0.024734 -0.337705 -0.500000
0.319603 -0.364074 -0.041246
0.184721 -0.363459 -0.036958
-0.142601 0.254698 0.159066
0.329664 0.116777 -0.404399
0.328674 -0.083630 0.029734
-0.338114 -0.361796 -0.449249
-0.334355 0.229698 -0.066760
-0.332362 -0.203679 -0.205725
-0.333001 -0.058134 -0.162857
0.003583 -0.363604 -0.074573
-0.317060 0.159598 -0.500000
0.068270 -0.301311 -0.500200
-0.215298 0.211367 0.156941
0.332123 -0.365552 0.041098
-0.292646 -0.361298 -0.399487
-0.316413 -0.360616 -0.213315
0.305290 -0.363642 -0.077142
0.233498 0.294647 -0.500000
-0.272852 0.355177 0.127294
0.327988 -0.207794 -0.061296
0.280343 0.381948 0.034453
-0.334167 0.256468 -0.277334
0.328204 0.000982 -0.084852
-0.007446 -0.372379 0.124604
0.328328 -0.054388 -0.221663
-0.332651 -0.066541 -0.309384
-0.071282 -0.280843 -0.500000
-0.332745 -0.329420 -0.311317
-0.333041 -0.235666 -0.384550
0.330938 0.205316 -0.452434
-0.302115 -0.363633 -0.108759
0.045775 0.272807 0.156823
0.014872 0.147318 0.362912
0.328992 -0.030136 -0.355847
-0.331672 -0.067410 -0.338208
-0.005964 -0.349982 -0.181132
0.331597 0.269813 0.055646
-0.331390 -0.282277 -0.060489
0.181784 -0.347902 -0.408401
0.221330 0.062761 -0.500074
0.275594 -0.367103 0.130544
-0.311257 -0.363467 -0.130102
0.245800 -0.338080 -0.500000
-0.245558 0.379346 0.065091
0.276034 -0.247497 -0.501108
-0.337204 0.265688 -0.234680
0.327924 0.308887 -0.342889
-0.312956 -0.181652 -0.502108
0.258509 0.380657 -0.311823
0.244996 -0.128852 0.154644
0.329573 -0.080605 -0.423866
-0.139464 0.111389 0.417488
-0.332618 0.026328 -0.209963
0.232519 0.377666 -0.217728
0.141996 -0.106946 0.350798
-0.338689 0.373721 -0.324348
-0.043375 0.150841 0.179044
-0.334923 0.307657 -0.069049
-0.238042 -0.356325 -0.498828
0.121567 -0.358757 -0.384349
0.328058 -0.116129 -0.270709
0.217855 -0.289920 0.154752
-0.332934 -0.283572 -0.183563
0.081885 -0.101040 -0.499828
0.193133 -0.344364 -0.249432
0.328472 -0.207077 -0.220148
0.301842 0.379377 0.137358
-0.170680 0.010234 0.158303
0.331214 -0.092829 0.088967
-0.335994 0.062475 0.130744
0.332157 0.083955 0.067975
0.098672 -0.347607 -0.062592
0.016329 -0.148016 0.253584
0.202624 0.171169 -0.500000
-0.252796 0.156260 0.157691
0.224702 -0.364156 0.071653
-0.336111 0.319450 -0.253819
-0.265150 0.375990 -0.089027
0.328606 -0.202097 0.039639
-0.322288 0.215573 -0.500000
-0.084183 0.377094 -0.366866
-0.154802 0.339742 0.159773
-0.024430 0.024545 0.500000
0.284080 0.013711 0.157991
-0.116279 0.377727 -0.069479
0.332318 0.056223 -0.500839
0.325580 -0.361539 -0.216807
-0.332093 -0.076325 -0.178883
0.330054 -0.263818 -0.226117
-0.338680 0.368269 -0.374708
0.329013 -0.048607 -0.343122
-0.306744 -0.002378 -0.501754
0.029930 -0.350397 -0.295011
0.328411 -0.195963 -0.150937
-0.141161 0.378302 -0.064131
0.330112 0.059591 0.061850
-0.067895 0.276329 -0.500314
-0.197107 -0.361096 0.044279
-0.337714 0.369338 -0.100702
0.331773 -0.317915 -0.318868
-0.139993 -0.119351 0.333212
0.009541 -0.056942 -0.499920
-0.302186 -0.362614 0.124706
0.075030 0.148260 0.384583
0.137319 0.375813 -0.500000
-0.075762 0.378051 0.091642
0.247590 -0.365538 0.104493
0.061629 -0.002643 -0.499721
0.331200 -0.226300 0.015390
-0.258411 -0.360065 -0.389466
0.329685 -0.100695 -0.426322
-0.001673 0.377058 -0.332987
0.329797 -0.265701 -0.321487
-0.170771 -0.362672 0.085757
0.331834 0.137698 -0.500675
-0.193040 -0.361834 -0.026977
-0.146226 0.377649 -0.207883
-0.267769 -0.359948 -0.310538
-0.333949 0.132532 -0.079541
0.134854 -0.362848 -0.113876
-0.295939 0.329723 -0.500000
0.224765 0.152325 -0.501099
-0.010044 0.375289 -0.406471
-0.007154 0.141946 -0.500086
0.329520 -0.010960 -0.363883
-0.335582 0.322086 0.054955
0.327512 0.115575 -0.301353
0.323022 -0.158866 -0.500000
0.068166 0.244570 0.157282
-0.338221 0.270191 -0.445344
-0.333872 0.131528 -0.161323
-0.140066 -0.346207 -0.345385
0.241894 -0.363243 -0.246602
0.330848 -0.129991 -0.469963
0.102977 -0.148033 0.428596
0.204842 -0.361056 -0.196996
0.134700 -0.087060 -0.499908
0.329655 0.086555 -0.177974
-0.157307 -0.360201 -0.027332
-0.249361 -0.361501 -0.256962
-0.029059 -0.318364 0.153663
-0.193187 -0.286220 -0.500037
-0.041044 -0.105777 -0.499620
-0.167032 -0.360785 -0.397305
0.327274 0.058408 -0.178852
0.252736 0.160510 -0.500000
0.292026 0.142638 0.157507
-0.107489 -0.360458 -0.484878
0.140687 0.149753 0.370096
0.282399 -0.363213 -0.261011
0.332388 -0.345980 -0.401540
-0.336647 0.243704 -0.020373
0.330961 0.278069 0.027421
-0.042616 0.376783 -0.290199
0.170916 0.250144 0.157395
-0.332281 -0.077583 -0.207379
-0.001939 0.202206 -0.500000
-0.194586 -0.028964 -0.499699
0.223296 -0.080632 -0.500209
0.123101 0.148525 0.263333
0.174227 0.045414 -0.499561
0.310560 0.160371 0.158335
-0.338206 0.329828 -0.200837
0.329432 0.223159 -0.295626
0.007789 0.376281 -0.425566
-0.205677 -0.359193 -0.363921
-0.026064 0.375473 -0.450327
-0.332853 0.025724 -0.444615
0.248332 -0.342170 0.155265
0.293530 0.379608 0.091489
-0.178228 0.377679 -0.276250
0.222903 0.379198 -0.315481
-0.017021 -0.348347 -0.271160
0.328997 0.135526 -0.256273
-0.175134 -0.357873 -0.324143
-0.331543 -0.104316 -0.097126
-0.172826 0.375174 -0.482122
0.159828 0.379827 -0.425118
-0.221305 0.297169 -0.500000
-0.332235 0.001026 -0.225773
0.119565 -0.234499 0.153754
-0.104047 0.375425 -0.420452
0.212422 0.379085 -0.220096
-0.007743 0.228552 -0.500464
-0.335894 0.326498 0.005123
-0.333900 -0.229140 -0.287589
0.328910 0.073826 -0.276289
-0.302226 0.375325 -0.500176
0.248883 0.357795 -0.338929
0.200420 0.353250 0.157817
0.141193 -0.144894 0.347682
-0.093116 -0.363859 -0.155602
0.118383 0.352684 -0.500000
-0.139232 -0.124145 0.296509
0.285197 0.254745 -0.500000
0.308353 0.378613 0.025294
-0.126285 0.283332 -0.500000
0.329274 0.162874 -0.207339
-0.195337 0.375444 -0.195273
-0.101729 0.273134 -0.500000
0.261150 0.379995 0.004919
-0.332347 0.041329 -0.473732
-0.335384 0.126975 -0.363039
-0.134328 -0.143709 0.255560
-0.206300 -0.362440 -0.004752
-0.132822 0.375996 -0.261213
0.328308 -0.193434 -0.262284
0.168227 -0.078327 -0.500068
0.265552 0.198630 0.156559
-0.337476 0.303191 0.076081
0.274960 0.379432 -0.203791
-0.332853 -0.158537 -0.200032
0.145760 -0.002037 -0.500398
-0.291074 -0.361338 -0.245642
-0.264981 -0.204187 -0.500000
0.329022 -0.044189 -0.320439
-0.095721 0.377941 -0.212420
0.329286 0.298063 -0.376855
0.282006 0.204578 -0.500000
0.329989 0.381419 -0.418685
0.177221 0.377152 -0.441749
-0.287010 0.022630 -0.500314
0.300559 -0.248192 -0.500236
0.329558 -0.206122 -0.003513
-0.072696 -0.222589 0.154353
-0.333845 0.183590 -0.063480
0.329416 0.075974 -0.378368
-0.332549 -0.282554 -0.381766
-0.336686 0.353289 -0.087018
-0.091716 0.053344 -0.499480
0.330243 0.171973 -0.354056
-0.067274 0.315761 -0.499739
0.084225 -0.358093 -0.415652
-0.225637 0.376341 -0.327500
-0.332811 -0.194329 0.094243
0.285603 -0.272980 -0.500323
0.213246 0.282170 0.157439
-0.336381 -0.196122 0.133895
0.330508 0.136267 -0.130966
0.163711 -0.358903 -0.410048
0.329127 -0.024872 0.042194
0.277784 0.114842 0.157661
-0.332905 -0.051578 -0.108948
-0.278432 -0.362462 0.034251
-0.259603 0.375311 -0.350855
-0.137090 -0.016523 0.462471
-0.337911 0.338585 -0.164965
-0.332954 -0.188684 -0.244908
0.226187 0.313275 0.157746
-0.245059 -0.357656 -0.479192
-0.248708 0.341477 -0.500530
-0.335664 0.269983 -0.258722
0.001059 -0.358409 -0.469437
0.029639 -0.064995 -0.499785
-0.069818 0.362111 -0.499811
0.305195 0.200009 -0.500412
0.329407 -0.279608 -0.301465
-0.081635 0.375652 -0.421339
0.330569 0.349157 -0.167691
-0.334091 -0.133829 -0.464651
0.308417 -0.365638 0.090196
-0.261055 0.376933 -0.143365
-0.106485 0.147208 0.468464
0.210984 -0.346877 -0.318393
-0.085679 -0.363216 0.115330
0.329095 -0.186131 -0.289495
-0.270619 -0.360255 -0.405724
-0.332619 -0.332220 -0.266412
-0.333851 0.142492 -0.395113
-0.138854 0.011027 0.328976
-0.263608 -0.360225 -0.284131
0.066082 -0.224452 0.155349
0.142825 -0.036856 0.291692
-0.233198 0.379589 -0.013174
0.053393 -0.152209 0.501992
0.062337 -0.122145 -0.500000
0.128025 0.377621 -0.201991
0.329877 0.098759 -0.377935
0.331989 0.262616 -0.189449
-0.223957 0.044910 -0.499660
0.331843 0.077790 0.033637
-0.094534 0.147682 0.339711
0.329737 -0.262174 -0.143099
0.054093 0.316992 -0.501459
0.328731 -0.108842 -0.398532
-0.334087 -0.312097 0.083875
0.337260 0.099482 0.125302
0.333545 -0.360649 -0.386720
0.029217 0.377999 -0.147927
0.231166 -0.362043 -0.155504
-0.107858 -0.014675 -0.499574
-0.022325 -0.084602 -0.499898
0.314020 -0.216634 0.157293
-0.309406 0.374998 -0.381926
0.328969 0.251494 -0.309068
-0.334831 0.165713 -0.172979
-0.292549 -0.361470 -0.347677
-0.140067 -0.348672 -0.234384
-0.137470 0.125194 -0.499685
0.049677 -0.071662 -0.500254
-0.332680 0.036170 -0.184389
-0.068487 -0.360678 -0.298929
-0.030585 0.133190 -0.499905
-0.333016 0.003314 -0.277391
0.330650 0.328456 -0.227970
0.021812 -0.150105 0.450762
-0.012431 -0.058872 -0.499866
-0.285298 0.376775 -0.110635
0.332355 0.303349 0.098624
0.225271 -0.358472 -0.387522
-0.123840 -0.085787 -0.499263
0.151419 0.377785 0.061490
-0.305229 -0.362741 -0.151278
-0.070180 0.036640 -0.499513
-0.334503 0.153432 0.006666
-0.336107 0.222508 -0.103396
-0.333106 -0.022697 -0.016312
-0.158132 0.377243 0.031339
-0.332441 -0.075853 0.060737
-0.336269 0.242863 0.035962
0.329062 0.339807 -0.432813
-0.079463 -0.341757 0.152922
-0.296190 -0.359980 -0.205100
0.027347 -0.007555 -0.499461
0.174917 -0.253479 0.153735
0.328175 -0.142737 -0.220432
0.332905 -0.191117 -0.473798
0.086067 -0.362701 -0.034898
0.329513 0.092284 -0.025782
0.330812 0.181619 -0.443075
-0.200289 -0.042142 0.157965
0.105188 0.378153 -0.442075
-0.138982 -0.046915 0.450328
-0.333044 0.092582 -0.121630
0.187738 -0.174416 -0.500000
-0.336096 -0.114963 0.159275
0.029904 -0.335094 -0.500026
-0.208547 0.343408 -0.500455
-0.089452 -0.357064 -0.447248
-0.333161 -0.254264 0.001846
-0.139612 -0.329864 -0.500571
0.184278 -0.362625 -0.010644
-0.333148 0.002610 -0.251696
0.078557 0.141959 -0.500208
0.073374 0.112842 -0.499717
-0.336380 -0.118490 -0.493537
0.000552 -0.232704 -0.500000
-0.138044 -0.056740 0.332864
0.329769 -0.256655 0.040510
-0.140729 -0.017306 0.428641
0.299170 -0.346123 -0.122859
0.280794 0.377833 -0.330239
-0.093429 0.377835 -0.069527
-0.333425 0.113411 -0.280767
0.327740 -0.248935 -0.211305
0.059937 -0.362452 -0.108075
-0.225390 -0.174172 -0.500019
0.025069 -0.347688 -0.270683
-0.337094 0.287824 0.096527
-0.337561 0.325888 -0.089926
-0.338188 0.232370 -0.498116
-0.221229 0.321329 -0.500210
0.190914 -0.317397 -0.500000
-0.337499 0.267080 -0.461376
0.337726 0.215659 0.158126
0.329543 0.224468 -0.032111
-0.300199 0.380016 0.073239
-0.332666 -0.152462 -0.166374
-0.126470 -0.053270 -0.499388
0.048503 0.375078 -0.499856
0.217362 0.377699 -0.085273
-0.332488 -0.008692 -0.303650
-0.113519 0.172315 0.157788
-0.336107 0.295651 -0.093618
0.102210 -0.148733 0.464663
0.331951 -0.182539 0.097672
-0.224381 -0.074276 -0.500000
-0.230222 0.182391 0.159358
0.339395 -0.156922 0.157095
-0.117225 -0.337819 0.155702
0.236210 -0.345574 -0.424607
0.326874 0.097259 -0.324772
0.227465 -0.359985 -0.498281
0.159160 -0.335151 0.155561
-0.333198 -0.230086 -0.145372
0.330286 0.154633 -0.446526
-0.023146 -0.219298 -0.500000
-0.120440 -0.358763 -0.306626
0.330261 0.301937 -0.116133
0.297311 -0.205267 -0.500000
-0.306056 0.376010 -0.332380
0.047453 -0.043238 -0.499719
0.143608 0.047310 0.390088
0.300875 -0.365686 0.119471
0.330043 0.105122 -0.090791
0.113136 0.378135 -0.411731
-0.337781 0.254575 -0.493992
0.250060 0.062470 -0.501761
0.327322 -0.303884 -0.206493
-0.097233 -0.266823 -0.500000
-0.241458 0.376292 -0.084017
-0.144422 -0.361500 0.039968
